VERSION 0.7
FIELDS x y z
SIZE 4 4 4
TYPE F F F
COUNT 1 1 1
WIDTH 140
HEIGHT 1
VIEWPOINT 0.0 0.0 0.0 1.0 0.0 0.0 0.0
POINTS 140
DATA ascii
-881.23376465 -106.98899841 -200.00839233
-785.30548096 -102.26406097 -200.00839233
-899.41375732 -91.73218536 -190.04928589
-784.75317383 -102.57195282 -190.04928589
-902.46539307 -87.96155548 -180.04042053
-784.71466064 -102.56187439 -180.04042053
-902.46832275 -88.01246643 -170.00799561
-784.71661377 -102.60442352 -170.00799561
-902.45214844 -87.95555878 -159.99290466
-784.70166016 -102.55731964 -159.99290466
-902.49841309 -87.93437195 -149.93794250
-785.27264404 -102.22335815 -149.93794250
-885.29217529 -104.28840637 -139.92045593
-784.75585938 -102.52862549 -139.92045593
-885.27313232 -104.26728058 -129.95211792
-790.32958984 -98.75634766 -129.95211792
-881.21435547 -106.92444611 -119.91782379
-789.86291504 -99.12817383 -119.91782379
-881.15863037 -106.89290619 -109.95393372
-790.29852295 -98.74039459 -109.95393372
-881.19909668 -106.89676666 -99.91377258
-790.33947754 -98.73880005 -99.91377258
-872.50177002 -126.62818909 -200.03959656
-797.90447998 -74.11845398 -200.03959656
-877.38568115 -126.33033752 -190.04058838
-791.20581055 -74.52603149 -190.04058838
-877.34130859 -126.36860657 -180.05644226
-791.16766357 -74.55397034 -180.05644226
-876.81427002 -126.42857361 -170.04740906
-797.23944092 -74.19014740 -170.04740906
-876.76074219 -126.43864441 -160.09349060
-797.19342041 -74.18876648 -160.09349060
-876.70208740 -126.49948120 -150.13929749
-797.14105225 -74.24008179 -150.13929749
-876.66009521 -126.53808594 -140.14433289
-797.10534668 -74.26915741 -140.14433289
-876.63128662 -126.47075653 -130.12149048
-797.07586670 -74.20276642 -130.12149048
-877.13409424 -126.42551422 -120.07198334
-790.98468018 -74.57059479 -120.07198334
-876.61785889 -126.44145203 -110.12507629
-797.06243896 -74.17347717 -110.12507629
-877.11407471 -126.45439148 -100.07569885
-790.96710205 -74.59534454 -100.07569885
-858.82147217 -141.44691467 -199.84913635
-810.59423828 -53.66644669 -199.84913635
-858.81353760 -141.38934326 -189.89228821
-816.06378174 -56.33956528 -189.89228821
-858.75946045 -141.39305115 -179.94775391
-816.00964355 -56.34330368 -179.94775391
-858.79321289 -141.30068970 -169.83842468
-816.04754639 -56.24887466 -169.83842468
-858.74676514 -141.27499390 -159.90676880
-815.99401855 -56.22675705 -159.90676880
-858.69409180 -141.28691101 -149.89901733
-815.94738770 -56.23559952 -149.89901733
-858.63513184 -141.34104919 -139.93933105
-815.89556885 -56.28616333 -139.93933105
-858.63275146 -141.30082703 -129.92073059
-815.89111328 -56.24696350 -129.92073059
-854.77606201 -139.17839050 -119.95626068
-815.91558838 -56.13788605 -119.95626068
-859.01312256 -141.39360046 -110.01011658
-810.34033203 -53.40712738 -110.01011658
-858.97564697 -141.39205933 -100.05033112
-788.32568359 -33.35120392 -100.05033112
-836.00244141 -145.59651184 -198.60174561
-828.80902100 -16.70704842 -198.60174561
-835.96923828 -145.58578491 -188.60081482
-828.78814697 -16.69562149 -188.60081482
-835.63000488 -145.20877075 -178.64176941
-841.12915039 -50.17843628 -178.64176941
-835.91125488 -145.56524658 -168.63807678
-837.74554443 -45.03021240 -168.63807678
-835.91180420 -145.58529663 -158.62882996
-837.75091553 -45.05035019 -158.62882996
-835.81298828 -145.56512451 -148.68006897
-828.66906738 -16.67290688 -148.68006897
-835.53704834 -145.18099976 -138.64155579
-828.67022705 -16.68976974 -138.64155579
-835.51367188 -145.21040344 -128.65785217
-828.66210938 -16.71835327 -128.65785217
-835.50433350 -145.31808472 -118.60514069
-841.03771973 -50.28974533 -118.60514069
-835.50048828 -145.25180054 -108.65301514
-841.03149414 -50.22332764 -108.65301514
-835.44812012 -145.31408691 -98.70771790
-840.98724365 -50.28607178 -98.70771790
-813.70983887 -137.61544800 -198.86653137
-865.98266602 -58.06325531 -198.86653137
-813.50329590 -132.76283264 -188.84654236
-865.98620605 -58.06815338 -188.84654236
-813.66375732 -137.58291626 -178.88432312
-865.93475342 -58.02951813 -178.88432312
-813.69018555 -137.51094055 -168.86433411
-865.95928955 -57.95628357 -168.86433411
-813.63952637 -137.55366516 -158.84463501
-865.91345215 -58.00217819 -158.84463501
-813.65930176 -137.54342651 -148.81275940
-865.92944336 -57.98944473 -148.81275940
-813.63403320 -137.57322693 -138.76948547
-865.91369629 -58.02550888 -138.76948547
-813.66174316 -138.02896118 -128.78926086
-865.51391602 -51.87788773 -128.78926086
-813.60711670 -138.04116821 -118.81217194
-871.83514404 -22.82945633 -118.81217194
-813.33331299 -133.13665771 -108.90853882
-865.80700684 -57.95438004 -108.90853882
-813.53692627 -137.49877930 -98.79594421
-865.80261230 -57.94184875 -98.79594421
-813.31097412 -133.08129883 -88.75474548
-871.78033447 -22.72672462 -88.75474548
-813.31170654 -133.08364868 -78.82789612
-871.77447510 -22.72561455 -78.82789612
-813.27301025 -133.10424805 -68.82418060
-871.74108887 -22.74903679 -68.82418060
-798.50708008 -120.02731323 -199.21099854
-883.50860596 -77.18164825 -199.21099854
-798.51190186 -120.02848053 -189.19949341
-883.51190186 -77.17976379 -189.19949341
-800.53625488 -116.12318420 -179.14591980
-883.53515625 -77.17397308 -179.14591980
-800.56414795 -116.11752319 -169.02980042
-883.56213379 -77.16631317 -169.02980042
-800.55505371 -116.10413361 -159.07182312
-883.55072021 -77.14801025 -159.07182312
-800.54821777 -116.08852386 -149.06259155
-883.54479980 -77.13439178 -149.06259155
-800.52947998 -116.06055450 -139.01495361
-883.52563477 -77.10544586 -139.01495361
-800.54656982 -116.04231262 -129.04177856
-883.54364014 -77.08916473 -129.04177856
-800.54663086 -116.09889221 -119.01384735
-883.54278564 -77.14375305 -119.01384735
-800.54296875 -116.03379059 -109.07309723
-883.53814697 -77.07666016 -109.07309723
-800.52502441 -116.04893494 -99.05780029
-883.51977539 -77.09085846 -99.05780029
-800.54406738 -116.04087830 -88.98860168
-883.29541016 -77.64497375 -88.98860168
